//X Y Z intensity ring
1.13847911 -3.89581919 -2.03868222 5.000000 3.000000
2.29349971 -7.84824228 -0.76282871 3.000000 19.000000
1.20630348 -4.12791061 -2.03562093 5.000000 4.000000
4.01535797 -13.74035740 -1.00100541 4.000000 20.000000
1.27714372 -4.37032270 -2.02717543 4.000000 5.000000
4.01182747 -13.72827530 -0.66698158 7.000000 21.000000
1.35936368 -4.65167522 -2.02424145 3.000000 6.000000
4.03305244 -13.80090523 -0.33381769 20.000000 22.000000
1.44961047 -4.96049547 -2.01802421 5.000000 7.000000
4.03245592 -13.79886532 0.00000000 17.000000 23.000000
1.55566692 -5.32341528 -2.01860285 3.000000 8.000000
4.00837517 -13.71646118 0.33177513 46.000000 24.000000
1.66618204 -5.70159245 -2.00713348 4.000000 9.000000
4.02303505 -13.76662731 0.66884488 8.000000 25.000000
1.80688429 -6.18306875 -2.01005888 3.000000 10.000000
4.00192690 -13.69439602 0.99765712 42.000000 26.000000
1.95969343 -6.70597410 -2.00333238 4.000000 11.000000
3.99658775 -13.67612553 1.32928371 37.000000 27.000000
2.19689059 -7.51765060 -2.05032372 6.000000 12.000000
2.91750574 -9.98356056 1.21633017 12.000000 28.000000
2.22666121 -7.61952400 -1.88090253 9.000000 13.000000
2.70991802 -9.27320480 1.35777295 13.000000 29.000000
2.40292883 -8.22270393 -1.82089078 6.000000 14.000000
2.71916962 -9.30486393 1.59267211 18.000000 30.000000
2.56629515 -8.78173542 -1.72376609 1.000000 15.000000
2.66883636 -9.13262653 1.79264259 5.000000 31.000000
1.00757313 -3.48397112 -2.03773046 4.000000 1.000000
3.27660775 -11.32980442 -1.65755177 2.000000 17.000000
1.06312346 -3.67605233 -2.03468990 3.000000 2.000000
3.72515392 -12.88078117 -1.56803453 2.000000 18.000000
1.12908518 -3.90413356 -2.04137516 5.000000 3.000000
2.27046800 -7.85078955 -0.76245707 3.000000 19.000000
1.19376707 -4.12778997 -2.03390956 5.000000 4.000000
3.97364712 -13.74001598 -1.00016832 4.000000 20.000000
1.26594996 -4.37738276 -2.02880263 4.000000 5.000000
3.97070050 -13.72982788 -0.66651571 7.000000 21.000000
1.34841955 -4.66254473 -2.02732468 4.000000 6.000000
3.99172044 -13.80251026 -0.33358556 20.000000 22.000000
1.43730545 -4.96989298 -2.02020669 5.000000 7.000000
3.99112940 -13.80046654 0.00000000 17.000000 23.000000
1.53818464 -5.31871176 -2.01518273 3.000000 8.000000
3.96783423 -13.71991730 0.33158943 63.000000 24.000000
1.65288591 -5.71532393 -2.01033473 4.000000 9.000000
3.98180103 -13.76821136 0.66837907 8.000000 25.000000
1.79226339 -6.19726086 -2.01303768 5.000000 10.000000
3.96256137 -13.70168495 0.99737805 42.000000 26.000000
1.93882310 -6.70403290 -2.00112724 4.000000 11.000000
3.95672226 -13.68149376 1.32872641 48.000000 27.000000
2.17320132 -7.51446247 -2.04779124 6.000000 12.000000
2.89071965 -9.99548626 1.21679485 10.000000 28.000000
2.20429373 -7.62197399 -1.87998044 9.000000 13.000000
2.71537542 -9.38918400 1.37363863 13.000000 29.000000
2.37506652 -8.21246910 -1.81714845 4.000000 14.000000
2.70688272 -9.35981846 1.60077810 14.000000 30.000000
2.51118469 -8.68313694 -1.70302916 7.000000 15.000000
2.63731742 -9.11927605 1.78856945 4.000000 31.000000
2.25878906 -7.90335464 -1.35046399 2.000000 16.000000
0.99758142 -3.49047184 -2.03968978 5.000000 1.000000
2.67879033 -9.37291145 -1.37002015 2.000000 17.000000
1.05254054 -3.68277025 -2.03656793 4.000000 2.000000
2.70263767 -9.45635128 -1.15012431 2.000000 18.000000
1.11927032 -3.91625333 -2.04586363 6.000000 3.000000
2.24360490 -7.85022593 -0.76171398 3.000000 19.000000
1.18079376 -4.13151979 -2.03390956 5.000000 4.000000
3.92827034 -13.74475956 -0.99961030 4.000000 20.000000
1.25118792 -4.37782431 -2.02717543 4.000000 5.000000
3.92535257 -13.73455143 -0.66614306 6.000000 21.000000
1.33325839 -4.66498327 -2.02655411 4.000000 6.000000
3.94559264 -13.80536938 -0.33335346 20.000000 22.000000
1.42270935 -4.97796631 -2.02166152 5.000000 7.000000
3.94610643 -13.80716705 0.00000000 17.000000 23.000000
1.52508342 -5.33616686 -2.01997089 3.000000 8.000000
3.92361474 -13.72846985 0.33149660 60.000000 24.000000
1.63596439 -5.72413158 -2.01161504 4.000000 9.000000
3.93578362 -13.77104759 0.66791320 8.000000 25.000000
1.77016246 -6.19368219 -2.01005888 3.000000 10.000000
3.91566014 -13.70063782 0.99640143 42.000000 26.000000
1.91616774 -6.70454502 -1.99947345 4.000000 11.000000
3.91262770 -13.69002724 1.32835484 52.000000 27.000000
2.15490055 -7.53985548 -2.05285621 6.000000 12.000000
2.84838676 -9.96631813 1.21214879 8.000000 28.000000
2.17712975 -7.61763382 -1.87721372 9.000000 13.000000
2.74137878 -9.59190464 1.40202987 6.000000 29.000000
2.34119129 -8.19167423 -1.81091094 3.000000 14.000000
2.67692304 -9.36637783 1.60045385 17.000000 30.000000
2.58111095 -9.03113747 -1.76968384 7.000000 15.000000
2.61513686 -9.15019226 1.79301298 4.000000 31.000000
2.24185181 -7.92253494 -1.35273373 2.000000 16.000000
0.98891461 -3.49474978 -2.04066944 5.000000 1.000000
1.04193354 -3.68211460 -2.03468990 4.000000 2.000000
2.68868852 -9.50162315 -1.15477026 1.000000 18.000000
1.10804045 -3.91573143 -2.04406834 6.000000 3.000000
2.22033358 -7.84649181 -0.76078504 3.000000 19.000000
1.16898870 -4.13111830 -2.03219819 5.000000 4.000000
3.89009905 -13.74731731 -0.99905223 4.000000 20.000000
1.23922479 -4.37932730 -2.02636218 4.000000 5.000000
3.88992548 -13.74670315 -0.66623622 6.000000 21.000000
1.32003558 -4.66490602 -2.02501225 4.000000 6.000000
3.90725851 -13.80795670 -0.33316779 20.000000 22.000000
1.40865731 -4.97808886 -2.02020669 5.000000 7.000000
3.90722203 -13.80782890 0.00000000 17.000000 23.000000
1.51161957 -5.34194994 -2.02065516 3.000000 8.000000
3.89473677 -13.76370621 0.33210006 42.000000 24.000000
1.61839318 -5.71927929 -2.00841379 4.000000 9.000000
3.89699697 -13.77169323 0.66744745 8.000000 25.000000
1.75757980 -6.21115446 -2.01422906 5.000000 10.000000
3.87706184 -13.70124435 0.99570394 42.000000 26.000000
1.90279603 -6.72433805 -2.00388384 4.000000 11.000000
3.87351990 -13.68872738 1.32724011 52.000000 27.000000
2.13409996 -7.54174852 -2.05184317 6.000000 12.000000
2.83634758 -10.02343845 1.21818864 14.000000 28.000000
2.15929842 -7.63079834 -1.87905824 9.000000 13.000000
2.71356106 -9.58952045 1.40063810 13.000000 29.000000
2.31973696 -8.19777584 -1.81091094 4.000000 14.000000
2.83939242 -10.03419876 1.71328974 27.000000 30.000000
2.61525369 -9.24210930 1.80967665 4.000000 31.000000
2.18271017 -7.80181360 -1.33100951 2.000000 16.000000
0.97854131 -3.49766850 -2.04066944 5.000000 1.000000
1.03195572 -3.68859148 -2.03656793 3.000000 2.000000
2.38967347 -8.54157639 -1.03722572 1.000000 18.000000
1.09497285 -3.91383815 -2.04137516 6.000000 3.000000
2.19650674 -7.85112762 -0.76059926 3.000000 19.000000
1.15867484 -4.14153242 -2.03562093 5.000000 4.000000
3.84875607 -13.75687790 -0.99891269 4.000000 20.000000
1.22819483 -4.39002275 -2.02961588 4.000000 5.000000
3.84696865 -13.75048828 -0.66586357 6.000000 21.000000
1.30569172 -4.66702509 -2.02424145 4.000000 6.000000
3.86411786 -13.81178665 -0.33298209 20.000000 22.000000
1.39036751 -4.96968794 -2.01511431 5.000000 7.000000
3.86462045 -13.81358337 0.00000000 17.000000 23.000000
1.49323153 -5.33736181 -2.01723480 3.000000 8.000000
3.86735034 -13.82334042 0.33326063 24.000000 24.000000
1.60090649 -5.72223186 -2.00777364 4.000000 9.000000
3.85288954 -13.77165222 0.66688842 8.000000 25.000000
1.73811483 -6.21266556 -2.01303768 3.000000 10.000000
3.83370519 -13.70308018 0.99500638 42.000000 26.000000
1.87972867 -6.71884537 -2.00057602 4.000000 11.000000
3.83235168 -13.69824219 1.32705426 52.000000 27.000000
2.76110315 -9.86920357 1.19844306 15.000000 28.000000
2.13192916 -7.62030363 -1.87490797 9.000000 13.000000
2.71497869 -9.70433807 1.41622555 6.000000 29.000000
2.23531771 -7.98985243 -1.76350713 4.000000 14.000000
2.82236934 -10.08819199 1.72107148 18.000000 30.000000
2.14460301 -7.66560459 -1.49973202 1.000000 15.000000
2.57723045 -9.21197510 1.80227053 4.000000 31.000000
2.14850426 -7.76831102 -1.32420051 2.000000 16.000000
0.96676463 -3.49551487 -2.03773046 4.000000 1.000000
2.13183308 -7.70803308 -1.12396204 2.000000 17.000000
1.02100670 -3.69163680 -2.03656793 4.000000 2.000000
2.37437987 -8.58500576 -1.04163957 1.000000 18.000000
1.08573723 -3.92568207 -2.04586363 6.000000 3.000000
2.16948628 -7.84417534 -0.75929880 3.000000 19.000000
1.14493561 -4.13972473 -2.03305411 4.000000 4.000000
3.80207062 -13.74708366 -0.99737805 4.000000 20.000000
1.21370256 -4.38836432 -2.02717543 4.000000 5.000000
3.80135942 -13.74451160 -0.66502506 6.000000 21.000000
1.29429805 -4.67977190 -2.02809548 4.000000 6.000000
3.82045484 -13.81355476 -0.33274996 20.000000 22.000000
1.37710559 -4.97917795 -2.01729679 5.000000 7.000000
3.81988525 -13.81149483 0.00000000 17.000000 23.000000
1.47839046 -5.34539175 -2.01860285 3.000000 8.000000
3.82152104 -13.81740952 0.33284283 24.000000 24.000000
1.58594120 -5.73426104 -2.01033473 4.000000 9.000000
3.80668497 -13.76376724 0.66595674 8.000000 25.000000
1.71458423 -6.19939375 -2.00708008 3.000000 10.000000
3.79037070 -13.70477962 0.99430877 42.000000 26.000000
1.86080980 -6.72809935 -2.00167871 4.000000 11.000000
3.78797460 -13.69611645 1.32575381 45.000000 27.000000
2.08724594 -7.54682064 -2.04981732 16.000000 12.000000
2.70427275 -9.77779388 1.18636334 17.000000 28.000000
2.10827208 -7.62284422 -1.87398589 9.000000 13.000000
2.65713644 -9.60736370 1.40091658 10.000000 29.000000
2.14797997 -7.76641560 -1.71277654 6.000000 14.000000
2.77558970 -10.03565311 1.71069574 15.000000 30.000000
2.50273395 -9.04909325 -1.76894331 7.000000 15.000000
2.56665111 -9.28019810 1.81412029 4.000000 31.000000
2.16742253 -7.92276096 -1.34949124 2.000000 16.000000
0.95791978 -3.50156426 -2.03968978 4.000000 1.000000
2.33972597 -8.55259609 -1.24615610 2.000000 17.000000
1.00976181 -3.69106674 -2.03468990 4.000000 2.000000
2.15697694 -7.88457823 -0.95592034 1.000000 18.000000
1.07477057 -3.92869878 -2.04586363 6.000000 3.000000
2.14652181 -7.84636116 -0.75892717 3.000000 19.000000
1.13384795 -4.14464951 -2.03390956 5.000000 4.000000
3.76314068 -13.75572300 -0.99723852 6.000000 20.000000
1.20096135 -4.38997459 -2.02636218 4.000000 5.000000
1.27927697 -4.67624807 -2.02501225 4.000000 6.000000
3.77817249 -13.81066990 -0.33242503 20.000000 22.000000
1.36319602 -4.98300409 -2.01729679 5.000000 7.000000
3.77813530 -13.81053352 0.00000000 17.000000 23.000000
1.46296167 -5.34768629 -2.01791883 3.000000 8.000000
3.77869987 -13.81259823 0.33247143 26.000000 24.000000
1.57292187 -5.74963284 -2.01417613 4.000000 9.000000
3.76612639 -13.76663685 0.66558409 8.000000 25.000000
1.70028853 -6.21520662 -2.01065469 3.000000 10.000000
3.75155878 -13.71338654 0.99416929 40.000000 26.000000
1.83897066 -6.72214317 -1.99837101 4.000000 11.000000
3.74813747 -13.70088005 1.32519650 41.000000 27.000000
2.06258941 -7.53955555 -2.04627156 13.000000 12.000000
2.69006205 -9.83320904 1.19217086 19.000000 28.000000
2.08646369 -7.62682486 -1.87352479 9.000000 13.000000
2.69196510 -9.84016514 1.43376136 10.000000 29.000000
2.12628412 -7.77238369 -1.71277654 6.000000 14.000000
2.75172067 -10.05859470 1.71328974 18.000000 30.000000
2.48004770 -9.06552601 -1.77079475 7.000000 15.000000
2.53761458 -9.27595520 1.81189847 4.000000 31.000000
2.14097738 -7.92381573 -1.34851861 2.000000 16.000000
0.94509530 -3.49782348 -2.03577113 4.000000 1.000000
2.32421064 -8.60196686 -1.25227964 4.000000 17.000000
0.99770027 -3.69251609 -2.03375101 4.000000 2.000000
2.14774036 -7.94884586 -0.96288931 1.000000 18.000000
1.06102431 -3.92687988 -2.04317045 7.000000 3.000000
2.12186098 -7.85306597 -0.75892717 3.000000 19.000000
1.12129295 -4.14993620 -2.03476524 5.000000 4.000000
3.71886635 -13.76362610 -0.99695951 6.000000 20.000000
1.18859351 -4.39901733 -2.02880263 4.000000 5.000000
3.71712565 -13.75718403 -0.66455925 6.000000 21.000000
1.26409829 -4.67846251 -2.02424145 5.000000 6.000000
3.73320150 -13.81668091 -0.33228576 20.000000 22.000000
1.34753454 -4.98726225 -2.01729679 5.000000 7.000000
3.73316383 -13.81654167 0.00000000 17.000000 23.000000
1.44762468 -5.35769892 -2.01997089 3.000000 8.000000
3.71025348 -13.73175049 0.33024320 44.000000 24.000000
1.55534518 -5.75637531 -2.01481628 4.000000 9.000000
3.72650599 -13.79190063 0.66623622 8.000000 25.000000
1.68424022 -6.23341942 -2.01482487 5.000000 10.000000
3.70533538 -13.71354771 0.99333221 42.000000 26.000000
1.82185483 -6.74273443 -2.00278115 4.000000 11.000000
3.70299792 -13.70489693 1.32445335 52.000000 27.000000
2.04293036 -7.56094122 -2.05032372 9.000000 12.000000
2.64620280 -9.79366875 1.18636334 14.000000 28.000000
2.06046200 -7.62582684 -1.87168014 8.000000 13.000000
2.67808580 -9.91166878 1.44294679 6.000000 29.000000
2.09062958 -7.73747778 -1.70362854 3.000000 14.000000
2.73606467 -10.12625122 1.72334111 17.000000 30.000000
2.43002319 -8.99358273 -1.75524199 7.000000 15.000000
2.53511882 -9.38254452 1.83115435 4.000000 31.000000
2.11629367 -7.92023039 -1.34689736 2.000000 16.000000
0.93757421 -3.50887203 -2.04066944 5.000000 1.000000
2.29455614 -8.58737755 -1.24921787 2.000000 17.000000
0.98784053 -3.69699383 -2.03468990 4.000000 2.000000
2.29116702 -8.57469463 -1.03792274 1.000000 18.000000
1.04913127 -3.92637444 -2.04137516 5.000000 3.000000
2.09735203 -7.84934187 -0.75799829 3.000000 19.000000
1.10923290 -4.15130472 -2.03390956 5.000000 4.000000
3.67835522 -13.76624680 -0.99640143 6.000000 20.000000
1.17488933 -4.39702415 -2.02636218 4.000000 5.000000
3.67714572 -13.76172066 -0.66427970 6.000000 21.000000
1.25436318 -4.69445467 -2.02963734 5.000000 6.000000
3.69253778 -13.81932545 -0.33210006 20.000000 22.000000
1.33504462 -4.99640560 -2.01947904 5.000000 7.000000
3.69198418 -13.81725311 0.00000000 17.000000 23.000000
1.43168700 -5.35808945 -2.01860285 4.000000 8.000000
3.67137575 -13.74012566 0.33019680 60.000000 24.000000
1.53339446 -5.73872995 -2.00713348 3.000000 9.000000
3.68127155 -13.77716160 0.66502506 8.000000 25.000000
1.66781199 -6.24178743 -2.01601624 5.000000 10.000000
3.66393447 -13.71227741 0.99249512 42.000000 26.000000
1.80152917 -6.74222422 -2.00112724 4.000000 11.000000
3.66265535 -13.70748997 1.32371020 52.000000 27.000000
2.01731253 -7.54979324 -2.04576516 4.000000 12.000000
2.62448335 -9.82213116 1.18891859 17.000000 28.000000
2.03714895 -7.62403107 -1.86983585 7.000000 13.000000
3.64889622 -13.65599632 1.98655701 17.000000 29.000000
2.06042886 -7.71115685 -1.69655967 3.000000 14.000000
2.69758630 -10.09571838 1.71685636 25.000000 30.000000
2.20550489 -8.25410366 -1.60971236 1.000000 15.000000
2.47592878 -9.26616573 1.80708456 4.000000 31.000000
2.08825040 -7.90930033 -1.34397912 2.000000 16.000000
0.92582387 -3.50658083 -2.03773046 4.000000 1.000000
0.97641641 -3.69820142 -2.03375101 4.000000 2.000000
2.27129364 -8.60258102 -1.04047799 1.000000 18.000000
1.03793335 -3.93119812 -2.04227281 4.000000 3.000000
2.07252860 -7.84975338 -0.75744092 3.000000 19.000000
1.09691107 -4.15457773 -2.03390956 5.000000 4.000000
3.63545752 -13.76938534 -0.99584347 6.000000 20.000000
1.16137159 -4.39872360 -2.02554846 4.000000 5.000000
3.63527846 -13.76870728 -0.66409338 6.000000 21.000000
1.23854470 -4.69101858 -2.02655411 5.000000 6.000000
3.64896750 -13.82055473 -0.33186796 20.000000 22.000000
1.31926322 -4.99674225 -2.01802421 5.000000 7.000000
3.64841914 -13.81847763 0.00000000 19.000000 23.000000
1.41434395 -5.35686255 -2.01655078 3.000000 8.000000
3.62906122 -13.74515915 0.33005753 56.000000 24.000000
1.51926291 -5.75424623 -2.01097488 4.000000 9.000000
3.63884830 -13.78222847 0.66474557 8.000000 25.000000
1.64587355 -6.23378658 -2.01184607 3.000000 10.000000
3.62323403 -13.72308826 0.99249512 40.000000 26.000000
1.78298926 -6.75311613 -2.00278115 4.000000 11.000000
3.62146068 -13.71637154 1.32352448 52.000000 27.000000
1.99440944 -7.55387497 -2.04525852 6.000000 12.000000
2.60445738 -9.86444664 1.19309998 12.000000 28.000000
2.01501608 -7.63192320 -1.87029696 8.000000 13.000000
3.60785699 -13.66484833 1.98627865 17.000000 29.000000
2.03404498 -7.70399570 -1.69364893 1.000000 14.000000
2.66610932 -10.09795475 1.71588373 19.000000 30.000000
2.13334107 -8.08008194 -1.57453358 7.000000 15.000000
2.50762916 -9.49770737 1.85078049 5.000000 31.000000
2.04658771 -7.83454227 -1.33036101 2.000000 16.000000
0.91619992 -3.50730515 -2.03675056 4.000000 1.000000
2.01029110 -7.69559574 -1.11783850 1.000000 17.000000
0.96717775 -3.70245314 -2.03468990 3.000000 2.000000
2.25278139 -8.62387276 -1.04233634 1.000000 18.000000
1.02763820 -3.93390179 -2.04227281 6.000000 3.000000
2.05046153 -7.84937239 -0.75688356 3.000000 19.000000
1.08648777 -4.15918398 -2.03476524 4.000000 4.000000
3.59536338 -13.76341057 -0.99472731 6.000000 20.000000
1.15169930 -4.40882015 -2.02880263 4.000000 5.000000
3.59720087 -13.77044487 -0.66372073 4.000000 21.000000
1.22765899 -4.69960165 -2.02886653 5.000000 6.000000
3.61075234 -13.82232189 -0.33168229 20.000000 22.000000
1.30617762 -5.00017881 -2.01802421 5.000000 7.000000
3.61172557 -13.82604694 0.00000000 26.000000 23.000000
1.40221512 -5.36781979 -2.01928687 3.000000 8.000000
3.61226821 -13.82812405 0.33182153 27.000000 24.000000
1.50610924 -5.76553679 -2.01353598 4.000000 9.000000
3.59871554 -13.77624321 0.66400021 8.000000 25.000000
1.62520552 -6.22144938 -2.00648451 3.000000 10.000000
3.58427000 -13.72094440 0.99165803 40.000000 26.000000
1.76433229 -6.75404072 -2.00167871 4.000000 11.000000
3.58100986 -13.70846462 1.32185233 52.000000 27.000000
1.97316015 -7.55345440 -2.04373932 8.000000 12.000000
2.59870672 -9.94810963 1.20239210 14.000000 28.000000
1.99453759 -7.63528919 -1.86983585 7.000000 13.000000
3.56906748 -13.66274738 1.98460853 12.000000 29.000000
2.01288033 -7.70550776 -1.69281709 3.000000 14.000000
2.62470007 -10.04761505 1.70615637 25.000000 30.000000
2.02375937 -7.74715328 -1.50861943 3.000000 15.000000
2.49567175 -9.55368137 1.86040831 4.000000 31.000000
2.00668716 -7.78169155 -1.32030952 2.000000 16.000000
0.90561217 -3.51185489 -2.03773046 4.000000 1.000000
1.98808253 -7.70954466 -1.11895180 2.000000 17.000000
0.95510024 -3.70376372 -2.03375101 3.000000 2.000000
2.02528191 -7.85379934 -0.94848663 1.000000 18.000000
1.01750565 -3.94576406 -2.04676151 6.000000 3.000000
2.02529454 -7.85384846 -0.75669783 3.000000 19.000000
1.07386720 -4.16432762 -2.03562093 5.000000 4.000000
3.54961514 -13.76498032 -0.99402976 6.000000 20.000000
1.13738632 -4.41064692 -2.02798891 4.000000 5.000000
3.55142689 -13.77200603 -0.66325492 4.000000 21.000000
1.21334934 -4.70522261 -2.02963734 5.000000 6.000000
3.56531239 -13.82585239 -0.33149660 20.000000 22.000000
1.29371870 -5.01688528 -2.02311659 5.000000 7.000000
3.56727219 -13.83345127 0.00000000 26.000000 23.000000
1.38628304 -5.37583876 -2.02065516 3.000000 8.000000
3.56631088 -13.82972431 0.33158943 24.000000 24.000000
1.48467660 -5.75739717 -2.00905418 3.000000 9.000000
3.55392122 -13.78167820 0.66372073 8.000000 25.000000
1.61137259 -6.24870872 -2.01363325 3.000000 10.000000
3.53865480 -13.72247696 0.99096042 42.000000 26.000000
1.74310482 -6.75955009 -2.00167871 4.000000 11.000000
3.53842235 -13.72157574 1.32203805 56.000000 27.000000
1.94410563 -7.53900766 -2.03816772 8.000000 12.000000
3.52973461 -13.68788624 1.65305674 30.000000 28.000000
1.96470881 -7.61890411 -1.86430240 6.000000 13.000000
3.52217007 -13.65855122 1.98238182 12.000000 29.000000
1.98133516 -7.68337917 -1.68657982 1.000000 14.000000
2.60199165 -10.09020996 1.71199274 21.000000 30.000000
2.03818154 -7.90382242 -1.53787351 5.000000 15.000000
2.46368217 -9.55386257 1.85892725 4.000000 31.000000
2.01419711 -7.90200853 -1.33976400 4.000000 16.000000
0.89537108 -3.51268005 -2.03675056 4.000000 1.000000
2.00519204 -7.86668015 -1.14094114 3.000000 17.000000
0.94562626 -3.70983887 -2.03562903 4.000000 2.000000
2.00334239 -7.85942411 -0.94848663 4.000000 18.000000
1.00427592 -3.93993068 -2.04227281 7.000000 3.000000
2.00040364 -7.84789467 -0.75558311 3.000000 19.000000
1.06178761 -4.16555786 -2.03476524 5.000000 4.000000
3.50524926 -13.75163841 -0.99235559 4.000000 20.000000
1.12506521 -4.41380596 -2.02798891 4.000000 5.000000
4.14557266 -16.26372719 -0.78269476 7.000000 21.000000
1.19792604 -4.69965029 -2.02578306 6.000000 6.000000
3.52520871 -13.82994270 -0.33135733 20.000000 22.000000
1.27602291 -5.00603628 -2.01729679 5.000000 7.000000
3.52615881 -13.83366966 0.00000000 26.000000 23.000000
1.37080145 -5.37786722 -2.01997089 3.000000 8.000000
3.50545430 -13.75244236 0.32950047 44.000000 24.000000
1.46625340 -5.75234032 -2.00585294 3.000000 9.000000
3.51443529 -13.78767681 0.66353440 8.000000 25.000000
1.59674644 -6.26428461 -2.01720786 5.000000 10.000000
3.49982858 -13.73037148 0.99082094 40.000000 26.000000
1.72279751 -6.75880289 -2.00002480 4.000000 11.000000
3.49714017 -13.71982479 1.32092345 56.000000 27.000000
1.92830241 -7.56503057 -2.04373932 8.000000 12.000000
3.49493217 -13.71116257 1.65468287 32.000000 28.000000
1.94486749 -7.63001776 -1.86568570 6.000000 13.000000
3.48303676 -13.66449547 1.98182511 12.000000 29.000000
1.95648944 -7.67561245 -1.68366909 1.000000 14.000000
2.53432035 -9.94253349 1.68572927 20.000000 30.000000
2.00736403 -7.87520170 -1.53120792 3.000000 15.000000
2.47146058 -9.69592476 1.88521874 4.000000 31.000000
1.98551035 -7.89298677 -1.33717012 4.000000 16.000000
0.88773412 -3.52900386 -2.04458809 5.000000 1.000000
1.98336697 -7.88446617 -1.14261115 3.000000 17.000000
0.93482816 -3.71621633 -2.03750682 4.000000 2.000000
1.97573364 -7.85412121 -0.94709283 2.000000 18.000000
0.99320108 -3.94826579 -2.04496598 6.000000 3.000000
1.97622430 -7.85607195 -0.75576890 3.000000 19.000000
1.04869568 -4.16887331 -2.03476524 5.000000 4.000000
3.45910907 -13.75097466 -0.99151850 4.000000 20.000000
1.11253035 -4.42263508 -2.03042936 4.000000 5.000000
4.08909702 -16.25536156 -0.78166997 11.000000 21.000000
1.18495655 -4.71055031 -2.02886653 5.000000 6.000000
3.48027921 -13.83513165 -0.33121806 20.000000 22.000000
1.26256192 -5.01905394 -2.02093410 5.000000 7.000000
3.48121715 -13.83886051 0.00000000 26.000000 23.000000
1.35389936 -5.38214731 -2.01997089 3.000000 8.000000
3.46028042 -13.75563049 0.32931480 56.000000 24.000000
1.45048559 -5.76610565 -2.00905418 3.000000 9.000000
3.46915269 -13.79090023 0.66316175 8.000000 25.000000
1.57333243 -6.25445843 -2.01244187 3.000000 10.000000
3.45521545 -13.73549557 0.99040246 42.000000 26.000000
1.70296228 -6.76977491 -2.00167871 4.000000 11.000000
3.45353436 -13.72881317 1.32073760 52.000000 27.000000
1.90452635 -7.57105160 -2.04373932 9.000000 12.000000
3.44796276 -13.70666409 1.65282452 40.000000 28.000000
1.92136216 -7.63797855 -1.86614692 5.000000 13.000000
2.40323210 -9.55355358 1.38449419 6.000000 29.000000
1.93093395 -7.67602921 -1.68242145 1.000000 14.000000
2.47659206 -9.84518051 1.66789591 20.000000 30.000000
2.03103971 -8.07397938 -1.56860864 1.000000 15.000000
2.40886307 -9.57593727 1.86040831 4.000000 31.000000
1.96536529 -7.90616179 -1.33846712 4.000000 16.000000
0.87577236 -3.52300811 -2.03968978 5.000000 1.000000
2.40521121 -9.67554855 -1.40119493 1.000000 17.000000
0.92231661 -3.71024394 -2.03281212 4.000000 2.000000
0.98130906 -3.94755530 -2.04317045 7.000000 3.000000
1.95235610 -7.85382891 -0.75502568 3.000000 19.000000
1.03661358 -4.17003155 -2.03390956 5.000000 4.000000
3.42310143 -13.77026081 -0.99221611 4.000000 20.000000
1.10017550 -4.42572451 -2.03042936 4.000000 5.000000
4.04657841 -16.27835083 -0.78222901 9.000000 21.000000
1.17224252 -4.71563148 -2.02963734 4.000000 6.000000
3.43921804 -13.83509445 -0.33098596 21.000000 22.000000
1.24809134 -5.02075243 -2.02020669 5.000000 7.000000
3.44255733 -13.84852791 0.00000000 26.000000 23.000000
1.33795726 -5.38225985 -2.01860285 3.000000 8.000000
3.42426515 -13.77494240 0.32954690 50.000000 24.000000
1.43574870 -5.77565002 -2.01097488 3.000000 9.000000
3.42869902 -13.79277897 0.66278905 8.000000 25.000000
1.55539942 -6.25697422 -2.01184607 3.000000 10.000000
3.41347528 -13.73153782 0.98942584 40.000000 26.000000
1.68405044 -6.77450418 -2.00167871 4.000000 11.000000
3.41229963 -13.72680855 1.31962287 52.000000 27.000000
1.88524306 -7.58385038 -2.04576516 11.000000 12.000000
3.40727615 -13.70660019 1.65166295 40.000000 28.000000
1.89955521 -7.64142466 -1.86568570 5.000000 13.000000
3.39663196 -13.66378117 1.97876322 12.000000 29.000000
1.90665877 -7.67000008 -1.67992651 1.000000 14.000000
2.46051550 -9.89802456 1.67567778 11.000000 30.000000
2.02270889 -8.13684082 -1.57971776 7.000000 15.000000
2.37926698 -9.57118225 1.85818648 4.000000 31.000000
1.94657612 -7.92503500 -1.34073675 4.000000 16.000000
0.86676329 -3.52882671 -2.04164910 5.000000 1.000000
2.81045246 -11.44210815 -1.65588176 4.000000 17.000000
0.91405874 -3.72137928 -2.03750682 4.000000 2.000000
3.19035196 -12.98878193 -1.56408536 4.000000 18.000000
0.97028220 -3.95027995 -2.04317045 6.000000 3.000000
1.92851782 -7.85151482 -0.75428259 3.000000 19.000000
1.02496529 -4.17290974 -2.03390956 5.000000 4.000000
3.38225698 -13.77007866 -0.99151850 4.000000 20.000000
1.08868456 -4.43232775 -2.03205633 4.000000 5.000000
4.04542637 -16.47001839 -0.79089350 7.000000 21.000000
1.15686905 -4.70992517 -2.02578306 5.000000 6.000000
3.39866447 -13.83687782 -0.33080027 21.000000 22.000000
1.23451114 -5.02602673 -2.02093410 5.000000 7.000000
3.40101123 -13.84643269 0.00000000 26.000000 23.000000
1.32292283 -5.38597488 -2.01860285 3.000000 8.000000
3.38101768 -13.76503277 0.32908267 50.000000 24.000000
1.41735566 -5.77043676 -2.00777364 3.000000 9.000000
3.38874149 -13.79647923 0.66250956 8.000000 25.000000
1.53610003 -6.25387669 -2.00946307 3.000000 10.000000
3.37321472 -13.73326492 0.98886776 39.000000 26.000000
1.66237545 -6.76797819 -1.99837101 4.000000 11.000000
3.37158108 -13.72661400 1.31869411 52.000000 27.000000
1.85898221 -7.56841707 -2.04019380 16.000000 12.000000
3.36804128 -13.71220207 1.65119839 40.000000 28.000000
1.87774599 -7.64480925 -1.86522460 5.000000 13.000000
3.35988188 -13.67898369 1.97959840 17.000000 29.000000
1.87963438 -7.65249729 -1.67493677 1.000000 14.000000
2.41168284 -9.81860924 1.66108692 17.000000 30.000000
1.99622953 -8.12718773 -1.57675540 7.000000 15.000000
2.35112500 -9.57206345 1.85707569 4.000000 31.000000
1.91051519 -7.88507700 -1.33295500 2.000000 16.000000
0.85361969 -3.52305889 -2.03675056 4.000000 1.000000
2.77495790 -11.45280457 -1.65616000 4.000000 17.000000
0.90277886 -3.72594857 -2.03844547 4.000000 2.000000
3.14765930 -12.99101734 -1.56315613 5.000000 18.000000
0.95912963 -3.95851946 -2.04586363 7.000000 3.000000
1.90149724 -7.84785843 -0.75335366 3.000000 19.000000
1.01185048 -4.17610884 -2.03390956 5.000000 4.000000
3.33663058 -13.77093983 -0.99082094 4.000000 20.000000
1.07174277 -4.42329645 -2.02636218 4.000000 5.000000
4.96279430 -20.48244095 -0.98281723 19.000000 21.000000
1.14467394 -4.72429800 -2.03040814 5.000000 6.000000
3.35376477 -13.84165668 -0.33066100 20.000000 22.000000
1.21915388 -5.03169107 -2.02166152 5.000000 7.000000
3.35513973 -13.84733105 0.00000000 28.000000 23.000000
1.30599558 -5.39010429 -2.01860285 3.000000 8.000000
3.33587313 -13.76781368 0.32889700 48.000000 24.000000
1.40100479 -5.78222656 -2.01033473 3.000000 9.000000
3.34397006 -13.80123138 0.66223007 8.000000 25.000000
1.52228975 -6.28279352 -2.01720786 5.000000 10.000000
3.32911372 -13.73991680 0.98858875 40.000000 26.000000
1.64201021 -6.77690363 -1.99947345 4.000000 11.000000
3.32844067 -13.73713875 1.31869411 52.000000 27.000000
1.83474040 -7.57233953 -2.03968716 14.000000 12.000000
3.32167172 -13.70920181 1.64957225 38.000000 28.000000
1.85280311 -7.64688826 -1.86430240 6.000000 13.000000
3.31362629 -13.67599678 1.97764993 8.000000 29.000000
1.85834777 -7.66977215 -1.67743170 1.000000 14.000000
2.37013578 -9.78202343 1.65362942 17.000000 30.000000
1.87997437 -7.75902939 -1.50417578 1.000000 15.000000
2.33214927 -9.62524509 1.86596286 5.000000 31.000000
1.86318028 -7.77265310 -1.31317627 2.000000 16.000000
0.84704113 -3.53361249 -2.04164910 3.000000 1.000000
1.83838940 -7.66923285 -1.10837460 2.000000 17.000000
0.89202553 -3.72127438 -2.03468990 4.000000 2.000000
3.11729646 -13.00446606 -1.56385314 5.000000 18.000000
0.94862133 -3.95737576 -2.04406834 6.000000 3.000000
1.88277996 -7.85441780 -0.75353944 3.000000 19.000000
1.00206482 -4.18032694 -2.03476524 5.000000 4.000000
3.30064702 -13.76935101 -0.99012333 4.000000 20.000000
1.06178319 -4.42945480 -2.02798891 4.000000 5.000000
4.90993738 -20.48284912 -0.98225820 19.000000 21.000000
1.13140631 -4.71990252 -2.02732468 5.000000 6.000000
3.31620479 -13.83425522 -0.33028963 20.000000 22.000000
1.20598698 -5.03103161 -2.02020669 5.000000 7.000000
3.31896353 -13.84576321 0.00000000 28.000000 23.000000
1.29457366 -5.40058994 -2.02133894 3.000000 8.000000
3.30035782 -13.76814556 0.32871130 48.000000 24.000000
1.38466382 -5.77641964 -2.00713348 3.000000 9.000000
3.30837488 -13.80159092 0.66185743 8.000000 25.000000
1.50426328 -6.27535439 -2.01363325 3.000000 10.000000
3.29367089 -13.74024963 0.98803067 42.000000 26.000000
1.62813532 -6.79211330 -2.00278115 4.000000 11.000000
3.29300809 -13.73748398 1.31795084 52.000000 27.000000
1.81352639 -7.56551170 -2.03664827 11.000000 12.000000
3.28862739 -13.71920967 1.64980459 38.000000 28.000000
1.83502018 -7.65517759 -1.86522460 5.000000 13.000000
3.27558303 -13.66479206 1.97486639 12.000000 29.000000
1.83960176 -7.67429018 -1.67743170 1.000000 14.000000
2.36416864 -9.86263275 1.66627491 13.000000 30.000000
1.95538902 -8.15732193 -1.58045840 7.000000 15.000000
2.29671168 -9.58122253 1.85633492 4.000000 31.000000
1.87146068 -7.91066360 -1.33554888 2.000000 16.000000
0.83494759 -3.52932310 -2.03773046 4.000000 1.000000
0.88301337 -3.73249745 -2.03938460 4.000000 2.000000
3.08052802 -13.02139091 -1.56478238 5.000000 18.000000
0.93687564 -3.96017313 -2.04406834 7.000000 3.000000
1.85855091 -7.85609388 -0.75316793 3.000000 19.000000
0.98965746 -4.18328190 -2.03476524 5.000000 4.000000
3.25886011 -13.77520084 -0.98984438 4.000000 20.000000
1.04947770 -4.43614197 -2.02961588 4.000000 5.000000
4.86754084 -20.57509232 -0.98598486 4.000000 21.000000
1.11782229 -4.72503424 -2.02809548 5.000000 6.000000
3.27560425 -13.84597874 -0.33033606 20.000000 22.000000
1.19019687 -5.03096199 -2.01875162 5.000000 7.000000
3.27694750 -13.85165596 0.00000000 28.000000 23.000000
1.27508307 -5.38977575 -2.01586652 3.000000 8.000000
3.25995374 -13.77982330 0.32875773 50.000000 24.000000
1.37144494 -5.79709721 -2.01289558 3.000000 9.000000
3.26833081 -13.81523418 0.66204375 8.000000 25.000000
1.48212147 -6.26492691 -2.00886750 3.000000 10.000000
3.25197053 -13.74607849 0.98775166 42.000000 26.000000
1.60576308 -6.78755999 -2.00002480 4.000000 11.000000
3.24994230 -13.73750496 1.31702197 56.000000 27.000000
1.79329860 -7.58027220 -2.03918052 11.000000 12.000000
3.24562144 -13.71924114 1.64864302 38.000000 28.000000
1.81050730 -7.65301371 -1.86338019 5.000000 13.000000
3.23776126 -13.68601608 1.97653651 17.000000 29.000000
1.81547284 -7.67400312 -1.67618418 1.000000 14.000000
2.30445457 -9.74092865 1.64455056 8.000000 30.000000
1.92439067 -8.13439846 -1.57490385 5.000000 15.000000
2.27008438 -9.59564590 1.85781622 4.000000 31.000000
1.84435737 -7.90689421 -1.33392775 2.000000 16.000000
0.82543993 -3.53872085 -2.04164910 4.000000 1.000000
2.67916203 -11.48576164 -1.65755177 6.000000 17.000000
0.86927706 -3.72665405 -2.03468990 4.000000 2.000000
3.04321408 -13.04648018 -1.56664073 5.000000 18.000000
0.92483544 -3.96483684 -2.04496598 7.000000 3.000000
1.83114636 -7.85025787 -0.75205320 3.000000 19.000000
0.97609955 -4.18460989 -2.03390956 5.000000 4.000000
3.21420789 -13.77954388 -0.98942584 6.000000 20.000000
1.03553581 -4.43941736 -2.02961588 4.000000 5.000000
4.87095165 -20.88212395 -0.99995995 7.000000 21.000000
1.10423005 -4.73391485 -2.03040814 5.000000 6.000000
3.23072672 -13.85035992 -0.33019680 21.000000 22.000000
1.17650151 -5.04374790 -2.02238917 5.000000 7.000000
3.23114300 -13.85214520 0.00000000 26.000000 23.000000
1.26027870 -5.40290642 -2.01928687 3.000000 8.000000
3.23163509 -13.85425472 0.33028963 30.000000 24.000000
1.35322583 -5.80137730 -2.01289558 3.000000 9.000000
3.22355080 -13.81959629 0.66176420 8.000000 25.000000
1.46373308 -6.27513027 -2.01065469 3.000000 10.000000
3.20786285 -13.75234127 0.98747265 42.000000 26.000000
1.58574116 -6.79818821 -2.00167871 4.000000 11.000000
3.20450616 -13.73795033 1.31609297 52.000000 27.000000
1.76508021 -7.56702709 -2.03411555 19.000000 12.000000
3.20115089 -13.72356606 1.64794624 38.000000 28.000000
1.78733933 -7.66245413 -1.86430240 5.000000 13.000000
3.19564843 -13.69997692 1.97709322 17.000000 29.000000
1.79002178 -7.67395353 -1.67493677 1.000000 14.000000
3.20050263 -13.72078800 2.31475687 10.000000 30.000000
1.85819733 -7.96622705 -1.54120612 1.000000 15.000000
2.22296095 -9.52999592 1.84374464 4.000000 31.000000
1.82359827 -7.91778326 -1.33490038 2.000000 16.000000
0.81359768 -3.53251624 -2.03675056 4.000000 1.000000
2.64440942 -11.48161888 -1.65588176 5.000000 17.000000
0.85847032 -3.72734642 -2.03375101 4.000000 2.000000
3.00275612 -13.03750515 -1.56454992 4.000000 18.000000
0.91496313 -3.97262931 -2.04765916 6.000000 3.000000
1.80787563 -7.84951830 -0.75149578 3.000000 19.000000
0.96481556 -4.18908072 -2.03476524 5.000000 4.000000
3.17616224 -13.79040909 -0.98956537 6.000000 20.000000
1.02067387 -4.43160915 -2.02473497 4.000000 5.000000
4.87539244 -21.16820526 -1.01300323 2.000000 21.000000
1.08934903 -4.72978640 -2.02732468 5.000000 6.000000
3.18934321 -13.84763813 -0.32991827 20.000000 22.000000
1.15948486 -5.03430510 -2.01729679 5.000000 7.000000
3.19199800 -13.85916519 0.00000000 28.000000 23.000000
1.24434197 -5.40274191 -2.01791883 3.000000 8.000000
3.17139268 -13.76969910 0.32806140 42.000000 24.000000
1.33404279 -5.79220867 -2.00841379 3.000000 9.000000
3.18315220 -13.82075787 0.66139156 8.000000 25.000000
1.45220256 -6.30524063 -2.01899505 5.000000 10.000000
3.16810203 -13.75541210 0.98705411 42.000000 26.000000
1.56675041 -6.80258989 -2.00167871 4.000000 11.000000
3.16612911 -13.74684620 1.31609297 45.000000 27.000000
1.74654722 -7.58323956 -2.03715467 11.000000 12.000000
3.16147661 -13.72664547 1.64724934 38.000000 28.000000
1.76243997 -7.65224361 -1.86061347 4.000000 13.000000
3.15648842 -13.70498848 1.97653651 17.000000 29.000000
1.76595008 -7.66748428 -1.67244184 1.000000 14.000000
2.30330610 -10.00060081 1.68605351 5.000000 30.000000
1.88402593 -8.18015099 -1.58156931 7.000000 15.000000
2.20472050 -9.57255745 1.85078049 4.000000 31.000000
1.80046213 -7.93117189 -1.33619738 4.000000 16.000000
0.80365378 -3.54015589 -2.03968978 4.000000 1.000000
2.60613298 -11.48021317 -1.65448999 2.000000 17.000000
0.84831989 -3.73691320 -2.03750682 4.000000 2.000000
1.80829227 -7.96566439 -0.95522332 1.000000 18.000000
0.90089548 -3.96851277 -2.04406834 6.000000 3.000000
1.78320646 -7.85515928 -0.75149578 3.000000 19.000000
0.95325106 -4.19914293 -2.03818798 5.000000 4.000000
3.13061380 -13.79059124 -0.98886776 6.000000 20.000000
1.01038659 -4.45082951 -2.03205633 4.000000 5.000000
4.99108362 -21.98610115 -1.05138803 13.000000 21.000000
1.07611859 -4.74038410 -2.03040814 5.000000 6.000000
3.14582324 -13.85758877 -0.32991827 21.000000 22.000000
1.14531291 -5.04519033 -2.02020669 5.000000 7.000000
3.14711356 -13.86327362 0.00000000 28.000000 23.000000
1.22777855 -5.40845728 -2.01860285 3.000000 8.000000
3.13342929 -13.80299282 0.32861847 50.000000 24.000000
1.31583917 -5.79637146 -2.00841379 3.000000 9.000000
3.13794756 -13.82289600 0.66101891 8.000000 25.000000
1.43111873 -6.30418634 -2.01720786 5.000000 10.000000
3.12310529 -13.75751495 0.98649603 42.000000 26.000000
1.54239225 -6.79435444 -1.99781966 4.000000 11.000000
3.11983991 -13.74313068 1.31479251 56.000000 27.000000
1.71971655 -7.57548141 -2.03360915 9.000000 12.000000
3.11657763 -13.72875977 1.64632010 38.000000 28.000000
1.74226820 -7.67482328 -1.86476350 5.000000 13.000000
3.10947108 -13.69745541 1.97403145 17.000000 29.000000
1.74271905 -7.67680931 -1.67327344 1.000000 14.000000
2.24347782 -9.88269043 1.66497779 6.000000 30.000000
1.87311101 -8.25119591 -1.59415972 7.000000 15.000000
2.18464351 -9.62351990 1.85929751 4.000000 31.000000
1.77010953 -7.89957809 -1.33003688 2.000000 16.000000
0.79338413 -3.54068494 -2.03871012 4.000000 1.000000
2.57623148 -11.49710846 -1.65588176 4.000000 17.000000
0.83749568 -3.73754454 -2.03656793 4.000000 2.000000
1.83382058 -8.18390560 -0.98077655 1.000000 18.000000
0.88902879 -3.96752453 -2.04227281 7.000000 3.000000
1.75995910 -7.85427952 -0.75093848 3.000000 19.000000
0.94073123 -4.19826031 -2.03647661 5.000000 4.000000
3.08860373 -13.78370476 -0.98775166 6.000000 20.000000
0.99675584 -4.44828463 -2.02961588 4.000000 5.000000
4.93753433 -22.03504372 -1.05306506 10.000000 21.000000
1.06207061 -4.73976898 -2.02886653 5.000000 6.000000
3.10449243 -13.85461235 -0.32963973 20.000000 22.000000
1.13040578 -5.04473257 -2.01875162 5.000000 7.000000
3.10707831 -13.86615276 0.00000000 26.000000 23.000000
1.21102762 -5.40452862 -2.01586652 3.000000 8.000000
3.10624123 -13.86241722 0.32982543 30.000000 24.000000
1.30503452 -5.82405901 -2.01673698 3.000000 9.000000
3.09671593 -13.81990719 0.66045988 8.000000 25.000000
1.41517937 -6.31560946 -2.01959085 5.000000 10.000000
3.08336854 -13.76034164 0.98607749 43.000000 26.000000
1.52467501 -6.80426264 -1.99947345 4.000000 11.000000
3.07971072 -13.74401760 1.31404948 56.000000 27.000000
1.69940257 -7.58402967 -2.03462219 9.000000 12.000000
3.07736135 -13.73353291 1.64585555 42.000000 28.000000
1.71912837 -7.67206144 -1.86291897 4.000000 13.000000
3.07034445 -13.70221806 1.97347462 17.000000 29.000000
1.71956480 -7.67400932 -1.67161012 1.000000 14.000000
2.24737453 -10.02949810 1.68864739 15.000000 30.000000
1.72371745 -7.69254160 -1.48529017 1.000000 15.000000
2.14143205 -9.55670261 1.84522593 4.000000 31.000000
1.72425938 -7.79049778 -1.31090665 2.000000 16.000000
0.78448832 -3.54445195 -2.03968978 4.000000 1.000000
1.70212269 -7.69048023 -1.10698295 2.000000 17.000000
0.82847083 -3.74317217 -2.03844547 5.000000 2.000000
2.90832067 -13.14028835 -1.57384205 1.000000 18.000000
0.87941098 -3.97332883 -2.04406834 6.000000 3.000000
1.73766851 -7.85108232 -0.75019532 3.000000 19.000000
0.92934608 -4.19894409 -2.03562093 5.000000 4.000000
3.05250621 -13.79174328 -0.98775166 6.000000 20.000000
0.98550135 -4.45266294 -2.03042936 4.000000 5.000000
4.87766886 -22.03813934 -1.05259919 10.000000 21.000000
1.04965782 -4.74253321 -2.02886653 5.000000 6.000000
3.06777716 -13.86073971 -0.32959330 20.000000 22.000000
1.12001264 -5.06040764 -2.02384400 5.000000 7.000000
3.06773973 -13.86056995 0.00000000 28.000000 23.000000
1.19890475 -5.41685581 -2.01928687 3.000000 8.000000
3.05222225 -13.79046059 0.32792214 44.000000 24.000000
1.28609705 -5.81080532 -2.01097488 3.000000 9.000000
3.05879688 -13.82016563 0.66008723 8.000000 25.000000
1.39451396 -6.30065155 -2.01363325 3.000000 10.000000
3.04560781 -13.76057529 0.98551941 45.000000 26.000000
1.50685573 -6.80823088 -1.99947345 4.000000 11.000000
3.04500794 -13.75786495 1.31460679 33.000000 27.000000
1.67745042 -7.57900715 -2.03208947 8.000000 12.000000
3.04182482 -13.74348259 1.64608777 54.000000 28.000000
1.69861591 -7.67463589 -1.86245787 4.000000 13.000000
3.03189254 -13.69860649 1.97180462 17.000000 29.000000
1.71680081 -7.75679827 -1.68865895 1.000000 14.000000
2.18784332 -9.88504887 1.66335654 23.000000 30.000000
1.86836517 -8.44159222 -1.62896824 7.000000 15.000000
2.11682940 -9.56419563 1.84559619 3.000000 31.000000
1.72458100 -7.90964270 -1.33003688 4.000000 16.000000
0.77297771 -3.54519606 -2.03871012 4.000000 1.000000
1.79651153 -8.23954582 -1.18519831 3.000000 17.000000
0.81595469 -3.74230623 -2.03656793 3.000000 2.000000
2.85940742 -13.11442661 -1.56966066 2.000000 18.000000
0.86540091 -3.96908689 -2.04047751 3.000000 3.000000
1.71214628 -7.85261202 -0.74982375 3.000000 19.000000
0.91537964 -4.19831038 -2.03390956 5.000000 4.000000
3.00873733 -13.79931641 -0.98761219 6.000000 20.000000
0.97111857 -4.45395231 -2.02961588 4.000000 5.000000
4.80840874 -22.05335617 -1.05259919 10.000000 21.000000
1.03475332 -4.74580765 -2.02886653 5.000000 6.000000
3.02208686 -13.86054230 -0.32936120 21.000000 22.000000
1.10212469 -5.05480051 -2.02020669 5.000000 7.000000
3.02417946 -13.87014008 0.00000000 28.000000 23.000000
1.18228126 -5.42243195 -2.01997089 3.000000 8.000000
3.02421641 -13.87030983 0.32959330 28.000000 24.000000
1.26622069 -5.80741262 -2.00841379 3.000000 9.000000
3.01621509 -13.83361149 0.66027355 8.000000 25.000000
1.37511945 -6.30686760 -2.01422906 3.000000 10.000000
3.00108695 -13.76422787 0.98510092 45.000000 26.000000
1.48545921 -6.81293154 -1.99947345 4.000000 11.000000
2.99752855 -13.74790764 1.31274891 45.000000 27.000000
1.65280747 -7.58045959 -2.03107667 8.000000 12.000000
2.99651670 -13.74326706 1.64492631 57.000000 28.000000
1.67449653 -7.67993498 -1.86245787 4.000000 13.000000
2.98841953 -13.70613003 1.97152627 17.000000 29.000000
1.67700338 -7.69143200 -1.67327344 1.000000 14.000000
2.18746829 -10.03263569 1.68702614 14.000000 30.000000
1.86863208 -8.57032108 -1.65266776 7.000000 15.000000
2.08719039 -9.57271957 1.84596646 3.000000 31.000000
1.70525253 -7.93401957 -1.33327913 4.000000 16.000000
0.76135653 -3.54235959 -2.03577113 4.000000 1.000000
1.75332916 -8.15770531 -1.17267263 1.000000 17.000000
0.80447662 -3.74298429 -2.03562903 3.000000 2.000000
2.82549334 -13.14615822 -1.57244825 2.000000 18.000000
0.85362083 -3.97163725 -2.04047751 3.000000 3.000000
1.68758464 -7.85181618 -0.74926639 3.000000 19.000000
0.90367907 -4.20454311 -2.03562093 5.000000 4.000000
2.96610451 -13.80037975 -0.98705411 6.000000 20.000000
0.95674765 -4.45145512 -2.02717543 4.000000 5.000000
4.84077024 -22.52262688 -1.07430708 10.000000 21.000000
1.02028012 -4.74705219 -2.02809548 5.000000 6.000000
2.98136950 -13.87140274 -0.32940763 20.000000 22.000000
1.08594787 -5.05258369 -2.01802421 5.000000 7.000000
2.98259330 -13.87709618 0.00000000 26.000000 23.000000
1.16579282 -5.42407846 -2.01928687 3.000000 8.000000
2.98178959 -13.87335682 0.32945403 24.000000 24.000000
1.25017893 -5.81670141 -2.01033473 3.000000 9.000000
2.97221875 -13.82882595 0.65962142 8.000000 25.000000
1.35479617 -6.30345297 -2.01184607 3.000000 10.000000
2.95897770 -13.76722050 0.98468244 45.000000 26.000000
1.46645081 -6.82294798 -2.00112724 4.000000 11.000000
2.95714378 -13.75868797 1.31293476 52.000000 27.000000
1.62664998 -7.56830549 -2.02651811 9.000000 12.000000
2.95572734 -13.75209713 1.64492631 45.000000 28.000000
1.65333867 -7.69248056 -1.86430240 4.000000 13.000000
2.94690800 -13.71106339 1.97096956 17.000000 29.000000
1.65582001 -7.70402527 -1.67493677 1.000000 14.000000
2.16100955 -10.05451775 1.68962026 10.000000 30.000000
1.87871313 -8.74107933 -1.68451393 7.000000 15.000000
2.95084763 -13.72939301 2.64582372 4.000000 31.000000
1.67981505 -7.92330599 -1.33068526 2.000000 16.000000
0.75182283 -3.54617739 -2.03675056 4.000000 1.000000
1.73177350 -8.16838169 -1.17350769 2.000000 17.000000
0.79328835 -3.74176097 -2.03375101 3.000000 2.000000
2.78959441 -13.15788364 -1.57291281 1.000000 18.000000
0.84215569 -3.97225714 -2.03957987 4.000000 3.000000
1.66358638 -7.84675932 -0.74833751 3.000000 19.000000
0.89193398 -4.20705032 -2.03562093 5.000000 4.000000
2.91555476 -13.75200939 -0.98300827 4.000000 20.000000
0.94469172 -4.45589638 -2.02798891 4.000000 5.000000
2.91411448 -13.74521637 -0.65524256 4.000000 21.000000
1.00816786 -4.75529909 -2.03040814 5.000000 6.000000
2.91442204 -13.74666691 -0.32625097 3.000000 22.000000
1.07299304 -5.06106424 -2.02020669 5.000000 7.000000
2.91396308 -13.74450207 0.00000000 7.000000 23.000000
1.14947176 -5.42179728 -2.01723480 3.000000 8.000000
2.91608095 -13.75449181 0.32643667 6.000000 24.000000
1.23353744 -5.81831598 -2.00969434 3.000000 9.000000
2.90251279 -13.69049358 0.65263385 2.000000 25.000000
1.34075177 -6.32402182 -2.01720786 3.000000 10.000000
2.91017532 -13.72663593 0.98119456 6.000000 26.000000
1.44699264 -6.82513571 -2.00057602 4.000000 11.000000
1.60631096 -7.57660437 -2.02753115 11.000000 12.000000
1.63144672 -7.69516373 -1.86384130 4.000000 13.000000
2.90696430 -13.71148968 1.96985614 17.000000 29.000000
1.62983620 -7.68756723 -1.67036271 1.000000 14.000000
2.90775013 -13.71519661 2.30340862 18.000000 30.000000
1.88079143 -8.87126637 -1.70858371 7.000000 15.000000
2.91127276 -13.73181248 2.64471269 7.000000 31.000000
1.65750980 -7.93405008 -1.33165812 4.000000 16.000000
0.74272430 -3.55521989 -2.04066944 5.000000 1.000000
1.72575593 -8.26072502 -1.18603325 1.000000 17.000000
0.78434980 -3.75446987 -2.03938460 4.000000 2.000000
2.74891782 -13.15832329 -1.57198358 4.000000 18.000000
0.83000082 -3.97298884 -2.03868222 5.000000 3.000000
1.64070499 -7.85360956 -0.74852329 3.000000 19.000000
0.87907797 -4.20790768 -2.03476524 5.000000 4.000000
2.87310743 -13.75278568 -0.98245019 3.000000 20.000000
0.93221426 -4.46225691 -2.02961588 4.000000 5.000000
2.87331963 -13.75380135 -0.65524256 4.000000 21.000000
0.99329972 -4.75465631 -2.02886653 5.000000 6.000000
2.87157845 -13.74546719 -0.32601884 4.000000 22.000000
1.06063890 -5.07699060 -2.02529883 5.000000 7.000000
2.86908054 -13.73351002 0.00000000 7.000000 23.000000
1.13414896 -5.42886305 -2.01860285 3.000000 8.000000
2.87116981 -13.74351025 0.32597244 6.000000 24.000000
1.21820641 -5.83122349 -2.01289558 3.000000 9.000000
2.86188030 -13.69904423 0.65263385 2.000000 25.000000
1.31924951 -6.31488943 -2.01303768 3.000000 10.000000
2.86739540 -13.72544384 0.98049700 6.000000 26.000000
1.42634296 -6.82751703 -2.00002480 4.000000 11.000000
2.86115479 -13.69557095 1.30531764 7.000000 27.000000
1.58303285 -7.57754850 -2.02651811 9.000000 12.000000
2.86022305 -13.69111156 1.63563418 7.000000 28.000000
1.60741401 -7.69425440 -1.86245787 4.000000 13.000000
2.86667442 -13.72199249 1.97013462 17.000000 29.000000
1.71343458 -8.20174599 -1.78097165 1.000000 14.000000
2.86704421 -13.72376251 2.30340862 25.000000 30.000000
1.88782144 -9.03648949 -1.73931885 5.000000 15.000000
2.86810613 -13.72884560 2.64249086 7.000000 31.000000
1.62680113 -7.90413904 -1.32582164 2.000000 16.000000
0.73217273 -3.55740809 -2.04066944 5.000000 1.000000
1.72040308 -8.35892296 -1.19939387 4.000000 17.000000
0.77213895 -3.75159168 -2.03656793 4.000000 2.000000
2.71467042 -13.18976974 -1.57477129 5.000000 18.000000
0.82181227 -3.99293947 -2.04765916 6.000000 3.000000
1.61498737 -7.84673977 -0.74740857 3.000000 19.000000
0.86658931 -4.21049786 -2.03476524 5.000000 4.000000
2.83631253 -13.78079319 -0.98384535 4.000000 20.000000
0.91897070 -4.46500301 -2.02961588 4.000000 5.000000
2.84055448 -13.80140400 -0.65710586 6.000000 21.000000
0.97956038 -4.75939035 -2.02963734 5.000000 6.000000
2.85375834 -13.86555767 -0.32866490 5.000000 22.000000
1.04256642 -5.06551743 -2.01947904 5.000000 7.000000
2.84323835 -13.81444359 0.00000000 7.000000 23.000000
1.11917317 -5.43772697 -2.02065516 3.000000 8.000000
1.19708025 -5.81625414 -2.00649309 3.000000 9.000000
2.83934617 -13.79553318 0.65682638 5.000000 25.000000
1.30127716 -6.32251596 -2.01422906 3.000000 10.000000
1.40801728 -6.84113407 -2.00278115 4.000000 11.000000
1.56054330 -7.58221245 -2.02651811 8.000000 12.000000
1.58536291 -7.70280313 -1.86338019 5.000000 13.000000
2.82195640 -13.71104050 1.96735108 17.000000 29.000000
1.58655596 -7.70860052 -1.67285764 1.000000 14.000000
2.82631326 -13.73220921 2.30340862 33.000000 30.000000
1.58722031 -7.71182823 -1.48343861 1.000000 15.000000
2.82379413 -13.71996975 2.63915825 6.000000 31.000000
1.58410585 -7.80006313 -1.30766416 2.000000 16.000000
0.72250956 -3.55760360 -2.03968978 6.000000 1.000000
1.56291580 -7.69572449 -1.10364282 1.000000 17.000000
0.76125991 -3.74840832 -2.03375101 4.000000 2.000000
2.67854786 -13.18904495 -1.57384205 4.000000 18.000000
0.81135565 -3.99507737 -2.04765916 6.000000 3.000000
1.59523118 -7.85484409 -0.74778014 3.000000 19.000000
0.85628253 -4.21629524 -2.03647661 5.000000 4.000000
2.80498862 -13.81163311 -0.98551941 6.000000 20.000000
